1.096585308153055216e-01 9.479248724572486573e-01 2.990208066277956767e-01
-2.375221426857177659e-02 9.440845141856624156e-01 3.288468676940098367e-01
9.450268671658772490e-01 2.279487551327676886e-01 2.344431388803456251e-01
-5.996422760692354803e-01 7.095506660362091989e-01 -3.700905201137673073e-01
-1.874121541888136566e-01 -6.879497175671211995e-01 7.011432596564174391e-01
7.173864354660929310e-01 6.025129116141751326e-03 6.966494096949964465e-01
4.860776387311688818e-01 -8.418704466376109030e-01 -2.344838591539318284e-01
6.518266192128840952e-01 5.474510456200861082e-03 7.583482631487770131e-01
5.944941967765400570e-02 9.452373765028558861e-01 3.209237737563054860e-01
4.547385143844577815e-01 -8.697901821776601317e-01 -1.915148101917162338e-01
-5.984350864038381346e-01 6.845216538590250810e-01 -4.162998351656361784e-01
-1.345225348822064737e-01 -7.477346704340542827e-01 6.502280755548330848e-01
-1.540540486586507440e-01 9.344919911534232959e-01 3.209237737563054860e-01
-1.226582932207583576e-01 9.391287848544427330e-01 3.209237737563054860e-01
-1.930149875715121699e-01 -6.969909119172882361e-01 6.906148588594629434e-01
9.108532429500922067e-02 9.427149066054300031e-01 3.209237737563054860e-01
9.360193973335502182e-01 2.092457073434726700e-01 2.829910277264410245e-01
9.595728658438891223e-01 1.851528523714869034e-01 2.119866420198405488e-01
-1.096982373032976132e-01 9.479202782598397103e-01 2.990208066277956767e-01
-1.749658228327944653e-01 -7.531330670886235978e-01 6.341746952521253311e-01
4.554036828265540793e-01 -8.666369145139126706e-01 -2.038331279989016587e-01
-1.448654129779056721e-01 -7.594975102162052627e-01 6.341746952521253311e-01
5.575914328139871534e-01 -7.880627858300611743e-01 -2.608617251384496294e-01
5.104449952089444853e-01 -8.193882274135579902e-01 -2.608617251384496294e-01
9.470716408628302441e-01 2.410746164127164637e-01 2.119866420198405488e-01
-3.297805629091658808e-02 9.252910034259517191e-01 3.778213953474161002e-01
4.792550889880615311e-02 9.530423405077305121e-01 2.990208066277956767e-01
1.037004178076069150e-01 9.485951615679844018e-01 2.990208066277956767e-01
-1.001026514968225978e-01 -7.666824082142355001e-01 6.341746952521253311e-01
-1.076265164816536668e-01 -7.506996960957305065e-01 6.518178420631044467e-01
2.590659295800316203e-02 9.519965330004963588e-01 3.050105729255027653e-01
9.420183601039223698e-01 2.230517697525984666e-01 2.506976610129235117e-01
4.847984513822827246e-01 -8.437308707785763362e-01 -2.304098071536145043e-01
5.433860254722474581e-01 -8.178245557079752981e-01 -1.894587643856223413e-01
-5.751648660787644918e-01 7.041873501204499730e-01 -4.162998351656361784e-01
4.539792093512128313e-01 -8.683378396944452238e-01 -1.997305025068318585e-01
-3.308963724257590888e-02 9.284217170681778875e-01 3.700516061082978481e-01
-1.311534565868105184e-01 -7.469486405326201117e-01 6.518178420631044467e-01
4.372196384591477969e-01 -8.625082869407129094e-01 -2.547909784593029858e-01
4.990476177630554511e-01 -8.478507711116359813e-01 -1.791662499758913951e-01
